# .PCD v0.7 - Point Cloud Data file format
VERSION 0.7
FIELDS x y z rgba
SIZE 4 4 4 4
TYPE F F F U
COUNT 1 1 1 1
WIDTH 1097
HEIGHT 1
VIEWPOINT 0 0 0 1 0 0 0
POINTS 1097
DATA ascii
0.76684856 0.67370075 2.1132891 4291225377
0.78528816 0.67667842 2.1047559 4291225377
-1.3350581 0.70545137 2.1154513 4293388032
-1.3038212 0.69676673 2.1077433 4293388032
-1.2751373 0.70674056 2.1066086 4293388032
0.56767738 0.71488756 2.1085298 4291225377
0.59060371 0.6980679 2.1037111 4291225377
0.76579601 0.69021797 2.1015534 4291225377
-1.2023927 0.74970371 2.1187291 4294967295
-1.2079585 0.75292945 2.1280279 4294967295
-0.84757578 -0.48488873 2.1515007 4293388032
-0.82577163 -0.48460573 2.1315176 4293388032
-0.9069227 -0.46118939 2.1427188 4293388032
-0.89246529 -0.45794827 2.1371281 4293388032
-0.85082227 -0.46398255 2.1388876 4293388032
-0.93977898 -0.4373512 2.1421814 4293388032
-0.87266523 -0.43119243 2.1326876 4293388032
-0.85118318 -0.43194443 2.1419117 4293388032
0.33355904 -0.4343214 2.1433523 4293379617
-0.92279452 -0.39464742 2.1308811 4293388032
-0.89291215 -0.41551149 2.1510658 4293388032
0.3339676 -0.40737614 2.1387973 4293379617
-0.93672681 -0.38565531 2.1542358 4293388032
-0.89203626 -0.37168613 2.1499186 4293388032
0.33333105 -0.37685484 2.1405346 4293379617
0.361011 -0.35892567 2.1424656 4293379617
-0.91702825 -0.31789452 2.1378646 4293388032
-0.93681175 -0.24657047 2.1583645 4294967295
0.41868702 -0.26818696 2.1426678 4294967295
-1.0711616 -0.23376459 2.133935 4294967295
-0.94037563 -0.23871693 2.1597955 4294901760
-0.94241124 -0.19401297 2.1497571 4294901760
-0.9256556 -0.20033602 2.1454043 4294901760
-1.0705526 -0.15028262 2.158108 4294967295
-0.94611472 -0.16021879 2.1550534 4294901760
-1.0903435 -0.13753217 2.144953 4294967295
-1.0761279 -0.14562625 2.1548598 4294967295
-0.96542311 -0.13003808 2.1371238 4294901760
-0.94609213 -0.13211013 2.151221 4294901760
-0.91808957 -0.13821089 2.1572928 4294901760
-1.1247057 -0.1051861 2.1490672 4293337542
-1.071696 -0.093291923 2.1564069 4293337542
-0.94726396 -0.10631784 2.1532052 4294901760
-0.92957091 -0.10741135 2.1517146 4294901760
-1.1307379 -0.072865382 2.1523905 4293337542
-1.1023269 -0.070561714 2.1337461 4293337542
-0.95295715 -0.073112279 2.1416018 4294901760
-1.127106 -0.059685104 2.1459768 4293337542
-0.95287955 -0.044387914 2.1578364 4294967295
-1.1308701 -0.013125263 2.1450152 4293337542
-1.0990456 0.050064478 2.131727 4293337542
-1.0702982 0.056291424 2.1455495 4293337542
-0.94062358 0.057611477 2.1332202 4293379617
-0.91865414 0.057777286 2.147752 4293379617
-1.0612766 0.080779739 2.1345885 4293337542
-0.94273007 0.070313334 2.1543047 4293379617
-0.91678375 0.065779254 2.1376858 4293379617
-1.0891178 0.093031414 2.1331112 4293337542
-0.87621069 0.10911909 2.135777 4293379617
-0.85761613 0.10482935 2.1348307 4293379617
-0.93935245 0.13787009 2.1328764 4293379617
-0.91281062 0.14044419 2.133791 4293379617
-0.8853206 0.13300073 2.133106 4293379617
-0.85182667 0.13510488 2.1325305 4293379617
-0.82832009 0.1380557 2.1323681 4293379617
-0.80493432 0.13867116 2.1311102 4293379617
-0.51285774 0.14504008 2.1558897 4294901760
-0.13629819 0.13283451 2.1581566 4293388032
-0.11171374 0.14154992 2.1565189 4293388032
-0.94569236 0.16597383 2.1319788 4293379617
-0.91887051 0.15781371 2.1323087 4293379617
-0.88709813 0.15898596 2.1306257 4293379617
-0.84972376 0.15960446 2.1312549 4293379617
-0.82205212 0.16102923 2.1316681 4293379617
-0.8053022 0.16410156 2.1310961 4293379617
-0.6430769 0.17246163 2.1564379 4293388032
-0.6084162 0.1733526 2.1542029 4293388032
-0.58907562 0.17111993 2.154995 4293388032
-0.55041975 0.17355503 2.1573336 4293388032
-0.53431016 0.17049386 2.1502426 4293388032
-0.49661651 0.1669192 2.1525121 4293388032
-0.25502342 0.1789382 2.135443 4293388032
-0.61712807 0.18967651 2.1553977 4293388032
-0.55146635 0.18795598 2.1572337 4293388032
-0.53074533 0.1900849 2.1571736 4293388032
-0.034007095 0.19868755 2.1332588 4294967295
0.42920682 0.20133018 2.1589394 4294967295
-1.0574781 0.29413465 2.1525128 4294967295
-1.061168 0.30100176 2.1596427 4294967295
0.67526001 0.55003285 2.1488745 4291225377
0.69533533 0.55218697 2.1434813 4291225377
0.59753454 0.57953262 2.1343546 4291225377
0.60468173 0.59709322 2.1515226 4291225377
0.64251685 0.58191383 2.1404438 4291225377
0.67356986 0.58194053 2.1309905 4291225377
-1.3059882 0.62997133 2.1480451 4293388032
0.46528736 0.62808245 2.1475396 4291225377
0.52266568 0.61490452 2.1376529 4291225377
0.55622548 0.61903125 2.1410384 4291225377
0.61871165 0.60710412 2.1335773 4291225377
0.74750412 0.61918759 2.1313932 4291225377
0.75630337 0.61636847 2.1358612 4291225377
0.79022217 0.62575698 2.1448553 4291225377
-1.3111012 0.6454581 2.148396 4293388032
0.43931901 0.647443 2.141675 4291225377
0.45927602 0.64198899 2.135725 4291225377
0.53508097 0.63957775 2.1409039 4291225377
0.54882562 0.6357798 2.1386251 4291225377
0.62056327 0.65949202 2.1420128 4291225377
0.67526442 0.64493555 2.137321 4291225377
0.73863471 0.65995884 2.1356618 4291225377
0.7700724 0.63432932 2.1497188 4291225377
0.79148549 0.64325202 2.1404693 4291225377
0.81219304 0.64405483 2.1333113 4291225377
-1.2605162 0.67655659 2.1568561 4293388032
-1.2547183 0.67846656 2.1528256 4293388032
0.49718526 0.66654283 2.1596968 4291225377
0.52937275 0.67828906 2.1344645 4291225377
0.56691164 0.68985778 2.1327205 4291225377
0.58746928 0.6731056 2.1540372 4291225377
0.69656748 0.68231267 2.1517541 4291225377
0.7437616 0.66217023 2.1408975 4291225377
-1.3371762 0.69626945 2.1412916 4293388032
-1.2944746 0.69362599 2.1338544 4293388032
-1.2380219 0.69896388 2.1450348 4293388032
0.66643906 0.69802338 2.1499426 4291225377
0.6965915 0.69050294 2.1537101 4291225377
-1.2052623 0.74055058 2.1486514 4294901760
-0.92376363 -0.42124987 2.1720285 4293388032
0.33402935 -0.43630725 2.1686873 4293379617
-0.92529756 -0.39087075 2.1862862 4293388032
0.33900917 -0.41121787 2.1676564 4293379617
-0.93182999 -0.38154194 2.1864808 4293388032
-0.92619056 -0.38575101 2.1840084 4293388032
0.33301216 -0.37603182 2.1745493 4293379617
0.37458456 -0.38227779 2.1858776 4293379617
0.39828601 -0.3617034 2.1784029 4293379617
-0.93306059 -0.33843946 2.1639709 4293388032
-0.92990822 -0.33501345 2.1627054 4293388032
-0.8932156 -0.35395461 2.1640699 4293388032
-0.94657469 -0.32613081 2.164283 4293388032
0.343041 -0.28192559 2.1756809 4294967295
-0.94663787 -0.26041231 2.1642745 4294967295
-0.94602996 -0.22238809 2.1666827 4294901760
0.35001975 -0.23001638 2.1789279 4294967295
-0.9437651 -0.18278643 2.1656671 4294901760
0.36077586 -0.20688811 2.1842358 4294967295
-0.9441511 -0.1657261 2.1711948 4294901760
-0.96028405 -0.13089262 2.1632574 4294901760
-0.95034796 -0.12481106 2.1641147 4294901760
0.41844967 -0.12442463 2.1845434 4294967295
-0.94666803 -0.10795122 2.1672592 4294901760
-0.91214395 -0.1052067 2.1764638 4294901760
-0.94700092 -0.044646561 2.1668692 4294967295
-0.9573229 0.0571381 2.169435 4293379617
-0.9126699 0.054283604 2.1774166 4293379617
-0.95451194 0.074372791 2.1637471 4293379617
-0.51390433 0.077653959 2.1886296 4293388032
-0.49503797 0.088350452 2.178653 4293388032
-0.4404749 0.080690272 2.1850488 4293388032
0.22551236 0.079478979 2.1886048 4293388032
-0.51212484 0.10862231 2.1826863 4293388032
-0.50292104 0.10063407 2.1867702 4293388032
0.044306803 0.11959693 2.1800764 4293388032
0.22582333 0.1020296 2.1883829 4293388032
0.26388517 0.11144572 2.1802423 4293388032
0.46093312 0.091579281 2.1777396 4294901760
-0.95480382 0.14399597 2.1724076 4293379617
-0.82856977 0.14972967 2.188786 4293388032
-0.72961235 0.14508668 2.1822517 4293388032
-0.70831633 0.14411086 2.1814766 4293388032
-0.67604131 0.14502405 2.186743 4293388032
-0.64995426 0.14231662 2.1825571 4293388032
-0.61001468 0.1486433 2.1838198 4293388032
-0.57656044 0.14779821 2.1748941 4293388032
-0.55051774 0.1469177 2.179985 4293388032
-0.52003491 0.14749084 2.1837504 4293388032
-0.48915556 0.1478764 2.1754303 4293388032
-0.47137478 0.14686325 2.1830409 4293388032
-0.43490118 0.13908988 2.1819763 4293388032
-0.40335169 0.14577226 2.1849077 4293388032
-0.374383 0.142875 2.182703 4293388032
-0.33643746 0.14418814 2.1878192 4293388032
-0.31482139 0.14034866 2.1822579 4293388032
-0.28568351 0.13690878 2.1863129 4293388032
-0.25939408 0.1456719 2.1875193 4293388032
-0.22950229 0.14294097 2.1820083 4293388032
-0.18863612 0.14772333 2.1845362 4293388032
-0.16676167 0.14235845 2.1766362 4293388032
-0.13336301 0.14325963 2.183177 4293388032
-0.1011492 0.14362068 2.1802332 4293388032
-0.077995405 0.13606438 2.1797917 4293388032
-0.043851648 0.14297144 2.1852455 4293388032
-0.025727658 0.13793838 2.1813715 4293388032
0.014820443 0.13684259 2.1740096 4293388032
0.044367507 0.13583298 2.1744008 4293388032
0.069000468 0.13683699 2.1714001 4293388032
0.1424417 0.14012164 2.1869445 4293388032
0.15884393 0.13884133 2.1871514 4293388032
0.19761603 0.13657695 2.1884167 4293388032
0.22167522 0.13742064 2.184427 4293388032
0.26582956 0.14408308 2.1852508 4293388032
-0.88340217 0.16400401 2.182471 4293388032
-0.82115239 0.159624 2.1872466 4293388032
-0.78001076 0.17598584 2.1889822 4293388032
-0.75327915 0.16819783 2.1879356 4293388032
-0.73022902 0.16782823 2.1863937 4293388032
-0.70386195 0.15987574 2.1847353 4293388032
-0.66710049 0.17324445 2.1724575 4293388032
-0.64594191 0.17486654 2.1706216 4293388032
-0.61337608 0.17469466 2.17048 4293388032
-0.58118105 0.17330731 2.1663511 4293388032
-0.56094402 0.16911764 2.1705444 4293388032
-0.52308333 0.15928508 2.1851361 4293388032
-0.48541889 0.16236994 2.1721408 4293388032
-0.46718645 0.16360334 2.1848445 4293388032
-0.43674505 0.17376685 2.1817424 4293388032
-0.39793754 0.17303707 2.1867859 4293388032
-0.38130179 0.16980462 2.1851492 4293388032
-0.34542027 0.17274909 2.1862183 4293388032
-0.31554312 0.17371972 2.1844347 4293388032
-0.2840769 0.17391287 2.1880889 4293388032
-0.25160679 0.1726273 2.1837692 4293388032
-0.22541274 0.17423496 2.187278 4293388032
-0.20302121 0.17343017 2.1871543 4293388032
-0.16542283 0.17278029 2.1881833 4293388032
-0.13364425 0.16813274 2.1866412 4293388032
-0.11058518 0.1744599 2.1882515 4293388032
-0.079840921 0.16256173 2.1857295 4293388032
-0.043861471 0.16358279 2.1851757 4293388032
-0.016929762 0.16683102 2.1840992 4293388032
0.0056387014 0.15763952 2.174365 4293388032
0.046478283 0.17132135 2.1810064 4293388032
0.072911002 0.163932 2.1752603 4293388032
0.10294043 0.16715717 2.1743858 4293388032
0.13835132 0.16300648 2.1812758 4293388032
0.16501157 0.16807772 2.1866393 4293388032
0.18384278 0.17308436 2.1871078 4293388032
0.22424424 0.15650597 2.1860003 4293388032
0.26606327 0.1579214 2.18715 4293388032
-0.83298457 0.18464944 2.187861 4293388032
-0.78313673 0.18855086 2.1852579 4293388032
-0.73299098 0.18290153 2.18325 4293388032
-0.69862145 0.18391506 2.1814318 4293388032
-0.67128617 0.18369193 2.1701691 4293388032
-0.65338612 0.18552594 2.168715 4293388032
-0.61110789 0.18715571 2.1667359 4293388032
-0.58765161 0.18655118 2.1669083 4293388032
-0.55612576 0.18725 2.1619139 4293388032
-0.53003514 0.19092783 2.1658144 4293388032
-0.45631933 0.18786569 2.1779492 4293388032
-0.43527579 0.18915643 2.1793363 4293388032
-0.40312806 0.19441371 2.1867511 4293388032
-0.36694092 0.19243222 2.186089 4293388032
-0.34670845 0.18901773 2.1877017 4293388032
-0.3155973 0.18717815 2.1829734 4293388032
-0.28388566 0.18918353 2.1837313 4293388032
-0.25443679 0.18915692 2.1841881 4293388032
-0.22670829 0.19079958 2.1858654 4293388032
-0.19607106 0.19009998 2.1882777 4293388032
-0.16575974 0.19075051 2.188143 4293388032
-0.13714376 0.19036898 2.1871791 4293388032
-0.11347719 0.19045809 2.1873872 4293388032
-0.074174754 0.18265983 2.1875467 4293388032
-0.045515906 0.20139152 2.1883259 4293388032
-0.015378959 0.20271756 2.1887374 4293388032
0.011045726 0.19899932 2.1884594 4293388032
0.04545527 0.1950776 2.1888099 4293388032
0.069891669 0.19705914 2.1849678 4293388032
0.10618812 0.18336815 2.1724255 4293388032
0.13283464 0.18227647 2.1750515 4293388032
0.16434379 0.1856091 2.1877465 4293388032
0.26294765 0.18748434 2.1861522 4293388032
0.41468182 0.19376516 2.1670063 4291225377
0.42605853 0.19954383 2.1630983 4291225377
-1.0571113 0.31561306 2.1785507 4294967295
0.13773569 0.30795479 2.1885002 4294901760
0.15368979 0.31899461 2.1864462 4293379617
0.19984323 0.32052091 2.187721 4293379617
0.2243551 0.31321457 2.1874352 4293379617
0.25371575 0.31893355 2.1861315 4293379617
-1.0580527 0.33324555 2.1660802 4294967295
0.16540863 0.33870387 2.1837249 4293379617
0.20131843 0.33982185 2.1873899 4293379617
0.22560993 0.34103745 2.1747808 4293379617
0.25350612 0.33706677 2.1854429 4293379617
0.08268062 0.36765808 2.1721735 4293379617
0.17564642 0.38300619 2.180691 4293379617
0.19146025 0.37612617 2.1863039 4293379617
0.13504091 0.40852278 2.1833863 4293379617
0.16120294 0.39789462 2.1837344 4293379617
0.25190669 0.41867444 2.1893048 4293379617
0.13299213 0.429905 2.1859493 4293379617
0.62379032 0.55601221 2.1769624 4291225377
0.6457774 0.55273354 2.1756325 4291225377
0.55787194 0.59478748 2.1800218 4291225377
0.57313359 0.58833259 2.1833694 4291225377
0.52680749 0.61910605 2.1829069 4291225377
0.55814987 0.61147308 2.1747105 4291225377
0.57133049 0.60513318 2.1697032 4291225377
-1.2943293 0.63632697 2.1786861 4293388032
-1.2888945 0.63646096 2.1778307 4293388032
0.49848568 0.63958997 2.1777136 4291225377
0.51360255 0.6351369 2.1758988 4291225377
0.56017107 0.6565243 2.1856101 4291225377
0.58991784 0.6530481 2.1854706 4291225377
0.60708499 0.64280367 2.1785245 4291225377
0.65311944 0.63945884 2.1745811 4291225377
0.66442829 0.6353631 2.1728954 4291225377
0.72525185 0.64027941 2.1872153 4291225377
0.77250892 0.64269757 2.1670063 4291225377
-1.3426028 0.67518651 2.1612191 4293388032
-1.2633042 0.67192197 2.1601982 4293388032
-1.2451233 0.67437345 2.1750684 4293388032
0.49460226 0.66599113 2.1630602 4291225377
0.52564591 0.68701798 2.1828976 4291225377
0.5579198 0.67225713 2.1792362 4291225377
0.57978785 0.6685679 2.170253 4291225377
0.67471969 0.67722958 2.1810918 4291225377
0.70651966 0.67648268 2.1681876 4291225377
-1.3029726 0.6990031 2.1776657 4293388032
-1.205204 0.70996064 2.1812313 4294901760
-1.1819791 0.70869982 2.1877027 4294967295
0.50685847 0.69405425 2.1787364 4291225377
0.51413786 0.69148445 2.1797919 4291225377
0.6564489 0.69875818 2.17524 4291225377
-1.2085623 0.73592067 2.174809 4294901760
-1.1903613 0.72830003 2.1745024 4294901760
0.32575789 -0.45549121 2.2135437 4293379617
0.33020049 -0.45210168 2.2026227 4293379617
0.33095276 -0.42979038 2.2026019 4293379617
0.33747512 -0.41170388 2.2017016 4293379617
-0.93051618 -0.37789842 2.1935089 4293388032
0.33433047 -0.36929533 2.2067473 4293379617
0.33747873 -0.343577 2.20397 4293379617
0.40099597 -0.33892068 2.1965218 4294967295
0.42616862 -0.32416731 2.2107656 4294967295
0.36975852 -0.27346706 2.199393 4294967295
0.36000752 -0.2445787 2.1941259 4294901760
0.36167485 -0.21692245 2.2005403 4294967295
-1.0701144 -0.16331354 2.2144406 4294967295
-0.92752999 -0.15486276 2.2166777 4294901760
0.37967524 -0.17233655 2.2161517 4294967295
-0.93453079 -0.14112298 2.1900959 4294901760
-0.92840457 -0.14713746 2.2156472 4294967295
-0.93497807 -0.095417477 2.2019572 4294901760
-0.94359255 -0.085282013 2.1958077 4294901760
-0.93986261 -0.056084029 2.2091064 4294967295
0.36360168 -0.013593616 2.2001224 4291225377
0.41958544 -0.0028187756 2.2023633 4291225377
0.4355531 -0.0094730509 2.2080419 4291225377
0.45539233 -0.0039321962 2.2134073 4291225377
0.42882845 0.016832246 2.2165778 4291225377
0.45884657 0.015910378 2.2101676 4291225377
-1.072394 0.050809558 2.2056644 4294967295
-0.91427714 0.049857728 2.1972077 4293379617
0.20081565 0.057803053 2.2180231 4293388032
0.37294587 0.046737958 2.2193058 4291225377
0.43027163 0.040850967 2.2111466 4291225377
0.45889238 0.048124861 2.2090271 4291225377
-0.42930505 0.072335921 2.1929278 4293388032
-0.41076604 0.079359092 2.2022736 4293388032
-0.37074575 0.077897705 2.210515 4293388032
0.13603941 0.08734744 2.2157753 4293388032
0.16177434 0.087022573 2.2134743 4293388032
0.19995621 0.082165591 2.217015 4293388032
0.22540252 0.084056579 2.2169893 4293388032
0.24646185 0.086471751 2.2186425 4293388032
0.40876684 0.087979361 2.2179472 4291225377
0.43687376 0.077228382 2.2027698 4291225377
0.46028176 0.077434875 2.2056813 4291225377
-1.0809603 0.099922523 2.2082398 4294967295
-1.0602157 0.095645882 2.2138593 4294967295
-0.61485231 0.11867003 2.2163069 4293388032
-0.52739179 0.11608801 2.2121589 4293388032
-0.49368507 0.11753959 2.208822 4293388032
-0.46686357 0.11585605 2.2048333 4293388032
-0.42977095 0.10980859 2.1972218 4293388032
-0.40712699 0.11092278 2.2053256 4293388032
-0.31074229 0.11472869 2.2177956 4293388032
-0.28513938 0.11728244 2.2141767 4293388032
-0.26267296 0.11849789 2.2016029 4293388032
-0.22939134 0.11467455 2.211864 4293388032
-0.19731483 0.11449583 2.2123232 4293388032
-0.15729442 0.1189426 2.2022605 4293388032
0.083049014 0.11565663 2.2109625 4293388032
0.11761963 0.10873896 2.2120686 4293388032
0.13761976 0.10614447 2.21415 4293388032
0.16182849 0.10960662 2.2157271 4293388032
0.18465482 0.10054865 2.214247 4293388032
0.22871442 0.10110623 2.2132516 4293388032
0.24477704 0.10203949 2.2156398 4293388032
0.38283962 0.10995381 2.2171888 4291225377
0.41102391 0.10316867 2.2176471 4291225377
0.43922544 0.10727797 2.2037222 4291225377
0.45736465 0.10480885 2.2023892 4291225377
-0.81693554 0.14635059 2.2014561 4293388032
-0.78036845 0.14297792 2.2179182 4293388032
-0.76904339 0.14468426 2.2164855 4293388032
-0.72998106 0.14398509 2.2158043 4293388032
-0.70497942 0.14343485 2.1960108 4293388032
-0.66764307 0.13484573 2.200439 4293388032
-0.64172792 0.14278379 2.1936152 4293388032
-0.60594964 0.14646426 2.1991072 4293388032
-0.58573258 0.14745949 2.1949968 4293388032
-0.55489594 0.14013377 2.1941824 4293388032
-0.52454412 0.14754823 2.1961818 4293388032
-0.49536616 0.14472812 2.1955705 4293388032
-0.46501103 0.14386629 2.1922488 4293388032
-0.4308902 0.14464726 2.1909263 4293388032
-0.39707497 0.14483838 2.1981347 4293388032
-0.37557185 0.14596838 2.2019148 4293388032
-0.3430624 0.1477581 2.1996131 4293388032
-0.3069078 0.14685558 2.2039483 4293388032
-0.28515249 0.14794423 2.1966126 4293388032
-0.25445163 0.1443668 2.2025239 4293388032
-0.22463457 0.14805785 2.1985061 4293388032
-0.19523084 0.14722446 2.1990683 4293388032
-0.16372064 0.14727539 2.2022517 4293388032
-0.13437058 0.14730857 2.2016604 4293388032
-0.10347468 0.14600898 2.2007842 4293388032
-0.078419052 0.14694223 2.2038784 4293388032
-0.048433878 0.14671448 2.202502 4293388032
-0.014597593 0.14553937 2.1944811 4293388032
0.080973141 0.13480279 2.205271 4293388032
0.1166263 0.13538148 2.2089868 4293388032
0.1353748 0.13774799 2.2124209 4293388032
0.16175015 0.13456762 2.2144775 4293388032
0.20050891 0.14656325 2.2070518 4293388032
0.22129221 0.13374189 2.2155194 4293388032
0.25660399 0.13829216 2.210722 4293388032
0.38101149 0.14489084 2.2170556 4291225377
0.41083807 0.13641605 2.2149973 4291225377
0.42542881 0.1321055 2.2133062 4291225377
0.46209607 0.12893909 2.2086725 4291225377
-0.93048906 0.16930985 2.1983452 4293388032
-0.92323554 0.16709343 2.2071238 4293388032
-0.88208073 0.16625999 2.1913934 4293388032
-0.84759843 0.16679712 2.1987481 4293388032
-0.82438421 0.16560706 2.1982174 4293388032
-0.78722304 0.16128989 2.2058582 4293388032
-0.76432532 0.16890599 2.1972389 4293388032
-0.73947209 0.16946293 2.1979554 4293388032
-0.70427579 0.17014368 2.2005968 4293388032
-0.67852074 0.16004373 2.1957757 4293388032
-0.64399487 0.16393964 2.1949472 4293388032
-0.61599416 0.16622886 2.1959705 4293388032
-0.58541018 0.1656723 2.1969335 4293388032
-0.55778205 0.16664928 2.1933563 4293388032
-0.52751309 0.16890614 2.193522 4293388032
-0.49948946 0.15797347 2.1925583 4293388032
-0.46601459 0.16043356 2.1961067 4293388032
-0.42787638 0.1683518 2.1952298 4293388032
-0.39572233 0.17099732 2.1970272 4293388032
-0.3746528 0.17454156 2.1967463 4293388032
-0.33868876 0.16414924 2.1975446 4293388032
-0.31547436 0.16387743 2.1996171 4293388032
-0.28414097 0.16452269 2.1970699 4293388032
-0.25619534 0.16367395 2.1969531 4293388032
-0.22580445 0.16478643 2.1984944 4293388032
-0.19509085 0.16474786 2.1968913 4293388032
-0.16397952 0.16578601 2.1977098 4293388032
-0.13449362 0.16538426 2.1987257 4293388032
-0.10543107 0.16326198 2.1992598 4293388032
-0.07711035 0.16420676 2.1997061 4293388032
-0.045828179 0.16517688 2.2016392 4293388032
-0.010839933 0.15766956 2.1951056 4293388032
0.0047417954 0.16369906 2.1943889 4293388032
0.04119065 0.17783529 2.1909502 4293388032
0.082151137 0.16864312 2.2055867 4293388032
0.11653569 0.16665323 2.2073562 4293388032
0.13889709 0.15688658 2.2134254 4293388032
0.16522004 0.16033457 2.2156744 4293388032
0.19766545 0.16351973 2.2135234 4293388032
0.2197562 0.1719995 2.2179801 4293388032
0.25721428 0.1691635 2.2048912 4293388032
0.37455159 0.16801393 2.2162042 4291225377
0.41016909 0.16004653 2.2170105 4291225377
0.4503608 0.16083394 2.2029417 4291225377
-0.79737276 0.18756795 2.1990428 4293388032
-0.7284348 0.18395802 2.1943161 4293388032
-0.71073228 0.18535455 2.1944602 4293388032
-0.67403179 0.18473685 2.2016523 4293388032
-0.64893675 0.18230218 2.1940506 4293388032
-0.60925943 0.18307483 2.1947737 4293388032
-0.59221941 0.18409567 2.1979177 4293388032
-0.54802245 0.18526644 2.2007062 4293388032
-0.53294873 0.18342297 2.1973844 4293388032
-0.49575907 0.18837668 2.1945379 4293388032
-0.46612322 0.18434589 2.1921847 4293388032
-0.43308902 0.18458709 2.1927371 4293388032
-0.39799672 0.18831828 2.1951778 4293388032
-0.37797225 0.18990912 2.1935966 4293388032
-0.34716266 0.1906313 2.1937237 4293388032
-0.31285566 0.18837623 2.1966834 4293388032
-0.28613225 0.18918219 2.1953409 4293388032
-0.25398779 0.1901928 2.1958461 4293388032
-0.22547172 0.19191597 2.1962829 4293388032
-0.19469398 0.19149286 2.1955838 4293388032
-0.16455169 0.19022621 2.1946609 4293388032
-0.13382959 0.19006632 2.1951704 4293388032
-0.10446781 0.19086602 2.1937747 4293388032
-0.070303731 0.18581246 2.1969213 4293388032
-0.043856502 0.18468964 2.2033896 4293388032
-0.0082126306 0.19686735 2.1996472 4293388032
0.0082630087 0.18882602 2.1951327 4293388032
0.044868972 0.19168805 2.190624 4293388032
0.079590209 0.19119869 2.2092235 4293388032
0.10753897 0.19871698 2.2172248 4293388032
0.13455503 0.18760893 2.2076352 4293388032
0.16615146 0.19360285 2.213192 4293388032
0.1919889 0.19794822 2.2160861 4293388032
0.22393875 0.20731652 2.2183471 4293388032
0.25842717 0.19263098 2.1972933 4293388032
0.43527722 0.19464241 2.209053 4291225377
0.021786034 0.32015368 2.2105153 4293379617
0.052806474 0.31609681 2.2171078 4293379617
0.072225101 0.30991659 2.2081637 4293379617
0.10626268 0.32017946 2.2138956 4293379617
0.13427134 0.31423867 2.2096441 4293379617
0.16640888 0.31732896 2.2156749 4293379617
0.19411033 0.31074822 2.2153368 4293379617
0.21770263 0.31399459 2.2158473 4293379617
0.25740832 0.31795987 2.2124999 4293379617
0.057728808 0.34700719 2.2140529 4293379617
0.065843023 0.34535193 2.2097855 4293379617
0.11266086 0.35220632 2.2129602 4293379617
0.14432812 0.34001678 2.2077332 4293379617
0.16770099 0.34227222 2.2097526 4293379617
0.19660078 0.34291375 2.2113171 4293379617
0.21645692 0.33928889 2.2043123 4293379617
0.25807527 0.34112722 2.2106998 4293379617
0.28471792 0.35028791 2.2067316 4293379617
0.021090029 0.37245288 2.2106833 4293379617
0.057594638 0.36112374 2.2151084 4293379617
0.072860859 0.3670783 2.2029231 4293379617
0.11026243 0.36460149 2.2151408 4293379617
0.13161868 0.37232235 2.1956286 4293379617
0.16848262 0.37111643 2.2039547 4293379617
0.19505528 0.37001032 2.2032423 4293379617
0.23044762 0.3632772 2.2078393 4293379617
0.25409013 0.3666994 2.2107553 4293379617
0.28677949 0.38232237 2.2157686 4293379617
0.075363412 0.39007679 2.2046061 4293379617
0.10886343 0.39526266 2.2108896 4293379617
0.14601755 0.39987257 2.197562 4293379617
0.18807518 0.39911863 2.2184732 4293379617
0.2259893 0.40527999 2.2015543 4293379617
0.27590191 0.39729559 2.210705 4293379617
0.13730848 0.43116099 2.2040787 4293379617
0.17973761 0.4269051 2.1935382 4293379617
0.19977841 0.43594849 2.2097909 4293379617
0.24548051 0.42224431 2.2032752 4293379617
0.53114533 0.59827888 2.2008715 4291225377
0.54630339 0.59140033 2.1969864 4291225377
0.57791352 0.58175623 2.1912098 4291225377
0.50457001 0.61873645 2.1945589 4291225377
0.52895659 0.61105925 2.1997156 4291225377
0.54368389 0.60327971 2.1972828 4291225377
0.58045256 0.62665653 2.2166886 4291225377
0.6519618 0.60755527 2.2058139 4291225377
0.68368417 0.61119741 2.1994786 4291225377
-1.2566868 0.65544212 2.2032862 4293388032
0.53259933 0.65677464 2.210681 4291225377
0.55395359 0.65278643 2.2047043 4291225377
0.57843316 0.64329183 2.2030454 4291225377
0.60298926 0.6442287 2.1929932 4291225377
0.70934218 0.65132648 2.199599 4291225377
0.72479177 0.63731301 2.1950481 4291225377
0.4741658 0.68956238 2.2044291 4291225377
0.50077915 0.68294722 2.2077885 4291225377
0.52178144 0.67278814 2.2087848 4291225377
0.54518497 0.6791535 2.1963022 4291225377
-1.2328331 0.70166475 2.2194605 4294967295
-1.177021 0.70957595 2.2023237 4294901760
0.47560942 0.70505136 2.1913383 4291225377
0.48916969 0.69737726 2.1990619 4291225377
0.33077133 -0.4552317 2.2213454 4293379617
0.33011907 -0.3973853 2.233958 4293379617
0.33415276 -0.33925822 2.2274585 4293379617
0.42458817 -0.26017731 2.2271113 4294967295
-0.92629111 -0.15531445 2.2268219 4294967295
-1.0812246 -0.13300626 2.2277992 4294967295
-0.91845357 -0.14240995 2.2345586 4294967295
-1.0668577 -0.085592568 2.225338 4294967295
-1.0779129 -0.043990832 2.2363744 4294967295
0.36332703 -0.042682938 2.2472134 4291225377
0.39230961 -0.040039223 2.2463152 4291225377
-1.0868088 -0.017762592 2.2340233 4294967295
0.23946318 -0.0004073162 2.2453866 4293388032
0.36250842 -0.0043532262 2.2413633 4291225377
0.41726202 -0.011965862 2.2492738 4291225377
0.42866588 -0.010642033 2.2391453 4291225377
0.20372677 0.02862454 2.2462168 4293388032
0.22369699 0.025314014 2.2454109 4293388032
0.36066875 0.0013032291 2.2357993 4291225377
0.41582319 0.016600654 2.2363636 4291225377
0.42735711 0.014815038 2.2396531 4291225377
-0.94773281 0.047295325 2.2238426 4293388032
-0.91521007 0.05815734 2.244045 4293388032
0.11976181 0.049346179 2.2499089 4293388032
0.20100649 0.03988852 2.2463784 4293388032
0.22227632 0.050064065 2.2481945 4293388032
0.26022562 0.055520084 2.2371905 4293388032
0.37879857 0.046003517 2.2320793 4291225377
0.4069927 0.046815567 2.2327373 4291225377
0.42417887 0.045858767 2.228204 4291225377
0.45374346 0.047039602 2.221179 4291225377
-0.92219186 0.066268511 2.2429237 4293388032
0.13904807 0.074447289 2.2383454 4293388032
0.1567971 0.079389162 2.2403638 4293388032
0.19332583 0.08348456 2.2388163 4293388032
0.22773819 0.071314342 2.2450924 4293388032
0.26011172 0.075356498 2.2396452 4293388032
0.37930855 0.077910312 2.2372463 4291225377
0.40618145 0.07481882 2.2330201 4291225377
0.42412472 0.073336229 2.2273078 4291225377
-0.84351915 0.11278757 2.2355261 4294967295
-0.62085944 0.11877591 2.2217355 4293388032
-0.57373881 0.11552031 2.2225745 4293388032
-0.31560558 0.11071086 2.221092 4293388032
0.11264668 0.1070438 2.2228618 4293388032
0.13144869 0.10089073 2.2249014 4293388032
0.15836924 0.099561051 2.2245677 4293388032
0.18565081 0.10692515 2.2308195 4293388032
0.22297253 0.11338663 2.2425504 4293388032
0.25161499 0.098123424 2.2256415 4293388032
0.3797161 0.10050528 2.23034 4291225377
0.40290168 0.1084344 2.2277882 4291225377
0.42504466 0.10499708 2.2291324 4291225377
-0.95736301 0.14806873 2.2277985 4293388032
-0.76536417 0.1451529 2.2231128 4293388032
-0.73162216 0.1388763 2.2333751 4293388032
-0.70504117 0.13823512 2.2353044 4293388032
-0.67410833 0.13444231 2.2328908 4293388032
-0.64496768 0.13727354 2.2283945 4293388032
-0.6171698 0.13697983 2.2230532 4293388032
-0.58392525 0.13125522 2.2249563 4293388032
-0.55682462 0.12938112 2.2207854 4293388032
-0.31101573 0.14373554 2.2209816 4293388032
-0.29092073 0.14119725 2.2204115 4293388032
-0.18463154 0.13945605 2.221041 4293388032
-0.10759689 0.13954276 2.221482 4293388032
-0.070947647 0.14070231 2.2210414 4293388032
0.11899672 0.12770009 2.2209077 4293388032
0.14169563 0.13394125 2.2250683 4293388032
0.16942771 0.13352437 2.2232575 4293388032
0.19447666 0.14582202 2.2380323 4293388032
0.21611193 0.13139507 2.246671 4293388032
0.26513159 0.13721582 2.2293963 4293388032
0.38110918 0.13165407 2.2295969 4291225377
0.40441138 0.13303818 2.2239988 4291225377
0.42215469 0.12384901 2.2234468 4291225377
0.47526151 0.14733772 2.2287703 4291225377
-0.95696604 0.15999615 2.2372739 4293388032
-0.91529959 0.17817803 2.2262485 4293388032
-0.76272684 0.16468328 2.2263703 4293388032
-0.73547995 0.1616486 2.2235096 4293388032
-0.7091158 0.16492404 2.2228837 4293388032
-0.67110938 0.15941352 2.2261019 4293388032
-0.65788692 0.15099862 2.2299302 4293388032
-0.62459105 0.16156502 2.2228003 4293388032
-0.37114468 0.17314982 2.2225108 4293388032
0.11541963 0.17532043 2.2346423 4293388032
0.13857836 0.17294763 2.225657 4293388032
0.16445804 0.17024991 2.223783 4293388032
0.19331276 0.17522326 2.2295504 4293388032
0.2173398 0.16879538 2.2337296 4293388032
0.26337874 0.16036029 2.2257981 4293388032
0.37814268 0.15651818 2.2262378 4291225377
0.39898553 0.16249003 2.2254729 4291225377
0.42449582 0.15544848 2.2250326 4291225377
0.075013824 0.20583835 2.2217987 4293388032
0.10732541 0.19614018 2.2302802 4293388032
0.13586122 0.19504021 2.2286236 4293388032
0.16546258 0.19475432 2.2268274 4293388032
0.19503768 0.19556096 2.2282159 4293388032
0.22105819 0.19482934 2.2242427 4293388032
0.25284845 0.19124964 2.236656 4293388032
0.39595443 0.18201301 2.229229 4291225377
0.028812414 0.3238048 2.2374279 4293379617
0.05233942 0.31590939 2.2229118 4293379617
0.080099232 0.3150309 2.2434313 4293379617
0.10317185 0.31300831 2.2239156 4293379617
0.14575025 0.31189257 2.2252984 4293379617
0.17366679 0.32086071 2.2267375 4293379617
0.19954528 0.3143225 2.2232778 4293379617
0.22538322 0.32039222 2.2238224 4293379617
0.25560182 0.31429046 2.225734 4293379617
0.27958342 0.31431383 2.2216504 4293379617
0.049479987 0.33144841 2.2232625 4293379617
0.089677267 0.3336553 2.223412 4293379617
0.10768136 0.34752703 2.2289076 4293379617
0.14427565 0.3481082 2.2218044 4293379617
0.16296616 0.35182038 2.2303705 4293379617
0.18863873 0.33582544 2.2306702 4293379617
0.21491709 0.35458961 2.2266364 4293379617
0.25686789 0.33452117 2.2248573 4293379617
0.0750167 0.38812593 2.2207038 4293379617
0.11370346 0.36409599 2.2253981 4293379617
0.23239292 0.37030378 2.2304428 4293379617
0.24975629 0.3665897 2.2273543 4293379617
0.17352591 0.42559233 2.2408283 4293379617
0.56409389 0.62749076 2.2250843 4291225377
0.58944398 0.6043362 2.242058 4291225377
0.49970281 0.65580547 2.2311411 4291225377
0.52625942 0.64917153 2.2275407 4291225377
0.55696207 0.63833445 2.2284532 4291225377
0.57595241 0.63772166 2.2215486 4291225377
-1.2034419 0.67752188 2.2255056 4294967295
0.50175178 0.67420107 2.229413 4291225377
0.514193 0.66887856 2.2259924 4291225377
-1.214811 0.70194471 2.225141 4294967295
0.34825745 -0.33086511 2.2595315 4291225377
0.3493295 -0.31975201 2.2616789 4291225377
0.385663 -0.32514811 2.2784007 4291225377
0.43362585 -0.32070011 2.2600114 4294967295
0.34374353 -0.28437626 2.2654028 4291225377
0.43197608 -0.27688128 2.276588 4294967295
0.34276068 -0.21920195 2.2715473 4294967295
0.3615056 -0.22860132 2.2506316 4294967295
0.39543942 -0.1534667 2.2653122 4291225377
0.47191837 -0.1501983 2.2778158 4294967295
0.39138165 -0.14721324 2.2559333 4291225377
0.36356163 -0.10673782 2.2752523 4291225377
0.40505648 -0.096372724 2.2735085 4291225377
-1.0687245 -0.083204173 2.2694371 4294967295
0.23114833 -0.060472354 2.266351 4293388032
0.36419868 -0.063607156 2.2655728 4291225377
0.41450638 -0.089130938 2.2750814 4291225377
0.20526417 -0.042917658 2.2676227 4293388032
0.23665865 -0.046322152 2.2726872 4293388032
0.25501135 -0.044209406 2.2689717 4293388032
0.37858835 -0.034349203 2.257406 4291225377
0.40607876 -0.038521547 2.2558975 4291225377
0.44222289 -0.039364778 2.2730141 4291225377
0.45822933 -0.03903145 2.2729294 4291225377
0.17677939 -0.008342023 2.2787278 4293388032
0.19402944 -0.016591638 2.2765784 4293388032
0.22987741 -0.0089543592 2.2692297 4293388032
0.25446939 -0.0099638775 2.2625966 4293388032
0.3663936 -0.015852422 2.2718492 4291225377
0.40528134 -0.016806236 2.2591641 4291225377
0.46186727 -0.026544316 2.2762702 4291225377
0.14206374 0.019929612 2.2655225 4293388032
0.17037813 0.010128574 2.2692809 4293388032
0.19401939 0.021790251 2.2733259 4293388032
0.2286049 0.0166071 2.2703433 4293388032
0.25379312 0.015854025 2.2668641 4293388032
0.37029317 0.014761606 2.27457 4291225377
0.40383583 0.0093700439 2.2672772 4291225377
0.42938846 0.017465735 2.2718024 4291225377
-0.94741082 0.054981302 2.2761002 4293388032
-0.91003692 0.051579639 2.2688954 4293388032
0.14097682 0.05180477 2.2594945 4293388032
0.15554379 0.050618924 2.2633979 4293388032
0.19980189 0.050611869 2.2569528 4293388032
0.230482 0.044803973 2.2692182 4293388032
0.25398767 0.043929201 2.2686739 4293388032
0.37443388 0.041966908 2.2673643 4291225377
0.40602723 0.045648862 2.2674258 4291225377
-0.94571072 0.072390191 2.2720959 4293388032
-0.90594351 0.075187132 2.2671785 4293388032
-0.89906687 0.087808982 2.2786951 4293388032
0.10744093 0.074124061 2.2560902 4293388032
0.14507072 0.06829007 2.256146 4293388032
0.15637961 0.070019491 2.2560494 4293388032
0.19863589 0.070939615 2.2602651 4293388032
0.22768503 0.074530691 2.2656968 4293388032
0.25300351 0.071827091 2.2696421 4293388032
0.36712131 0.078600094 2.2669199 4291225377
0.40450081 0.072656244 2.2662668 4291225377
-0.95820117 0.11486721 2.2736456 4293388032
-0.89340091 0.094604291 2.2680249 4293388032
-0.84781718 0.11533599 2.2517748 4294967295
0.13961467 0.099457949 2.2575216 4293388032
0.17340241 0.1114532 2.2742505 4293388032
0.20372094 0.10893577 2.2595081 4293388032
0.2261941 0.10567452 2.2595239 4293388032
0.25585839 0.10430136 2.2641981 4293388032
0.4214471 0.096697137 2.2538567 4291225377
-0.951195 0.13448158 2.268939 4293388032
0.09752804 0.14333671 2.2793782 4293388032
0.17722896 0.13063735 2.2612059 4293388032
0.20428583 0.13612667 2.2556057 4293388032
0.22731262 0.13352413 2.2573555 4293388032
0.24831709 0.12654707 2.2583086 4293388032
-0.9473201 0.1575135 2.2647376 4293388032
-0.89981288 0.17591576 2.2534728 4293388032
0.11516886 0.17128484 2.2644949 4293388032
0.12488773 0.17844781 2.2528682 4293388032
0.20286576 0.15355599 2.2687848 4293388032
0.23540059 0.15481722 2.2554953 4293388032
0.25283957 0.15830757 2.2683556 4293388032
-0.89512026 0.18348785 2.2554564 4293388032
0.11240422 0.19375826 2.2535944 4293388032
0.12631902 0.2036048 2.2519062 4293388032
0.2082921 0.20106807 2.2538912 4293388032
0.23929679 0.18525493 2.2568343 4293388032
0.24065538 0.19319059 2.2769866 4293388032
0.022126827 0.31087855 2.2536712 4293379617
0.075368464 0.32248959 2.2509189 4293379617
-0.02439918 0.34478781 2.2759974 4294901760
-0.021424985 0.3748467 2.2695987 4294967295
0.11651065 0.40144002 2.2680175 4294967295
0.12050258 0.39757913 2.2659328 4294967295
0.17999446 0.40335289 2.2774622 4293379617
0.18643618 0.40414366 2.2793157 4293379617
0.34455097 -0.38253433 2.2850149 4291225377
-0.0479437 -0.34673882 2.3043051 4294901760
-0.01129311 -0.34229174 2.302645 4294901760
0.34952068 -0.33920804 2.2925663 4291225377
0.43228313 -0.33465663 2.2992382 4294967295
-0.047614813 -0.30759251 2.2997944 4294901760
-0.026740983 -0.31377828 2.3003349 4294901760
0.33697021 -0.32137164 2.2921307 4291225377
0.42973503 -0.30334696 2.290144 4294967295
0.33727309 -0.28919417 2.2901156 4291225377
0.3406935 -0.2625128 2.3030405 4291225377
0.43272638 -0.24151181 2.2800143 4294967295
0.36327389 -0.16880596 2.2970686 4291225377
0.39347374 -0.12995154 2.2880621 4291225377
0.37089142 -0.10093341 2.2985268 4291225377
0.40116945 -0.11030652 2.2951019 4291225377
0.43742225 -0.11901337 2.2997892 4291225377
0.46141276 -0.095499262 2.2948213 4291225377
0.23455906 -0.063231044 2.2894659 4293388032
0.44251412 -0.075406529 2.2991784 4291225377
0.46162605 -0.076383054 2.2918792 4291225377
0.17590761 -0.037228718 2.3050117 4293388032
0.19178069 -0.040562645 2.3069105 4293388032
0.22672212 -0.037506163 2.3012865 4293388032
0.44475999 -0.056227129 2.2924631 4291225377
0.46350124 -0.052343249 2.2899103 4291225377
0.13242926 -0.0048866724 2.2981796 4293388032
0.17604963 -0.021245649 2.3035376 4293388032
0.1839239 -0.019692784 2.3060062 4293388032
0.22086985 -0.007103309 2.306314 4293388032
0.36851987 -0.008371776 2.2844553 4291225377
0.41119489 -0.0057534799 2.2934752 4291225377
0.429717 -0.020669652 2.3074763 4291225377
0.4694654 -0.026417017 2.2812738 4291225377
0.10546367 0.022613574 2.3007648 4293388032
0.1354129 0.016105739 2.2990274 4293388032
0.16070907 0.018523794 2.303829 4293388032
0.18913789 0.0061254017 2.3029888 4293388032
0.21702199 0.018339785 2.2966816 4293388032
0.25118339 0.008421611 2.2904909 4293388032
0.37325522 0.016956739 2.2866163 4291225377
0.40622652 0.013265428 2.2994869 4291225377
0.42488149 0.010594349 2.2962608 4291225377
-1.0616553 0.045997936 2.3041041 4294967295
-0.93619829 0.056205537 2.2946992 4293388032
-0.90399164 0.054372698 2.2879338 4293388032
0.086602055 0.038250133 2.2874446 4293388032
0.10465045 0.037899546 2.2938812 4293388032
0.14001663 0.036148649 2.3002906 4293388032
0.16013415 0.038211137 2.3067667 4293388032
0.19523442 0.049264692 2.3010461 4293388032
0.21531837 0.042272139 2.2916019 4293388032
0.24684523 0.03979779 2.2871709 4293388032
0.36762437 0.047324132 2.2979372 4291225377
0.3968111 0.034269694 2.280643 4291225377
-0.93863213 0.079452991 2.2933006 4293388032
-0.90607387 0.062336344 2.2959757 4293388032
-0.89138806 0.082020827 2.298172 4293388032
0.13915849 0.062394638 2.3001132 4293388032
0.16547021 0.068795331 2.295357 4293388032
0.20183627 0.077346049 2.2943678 4293388032
0.2138492 0.075126708 2.2840459 4293388032
0.26484403 0.076315455 2.2847483 4293388032
-0.9346174 0.094734617 2.2927115 4293388032
-0.92823815 0.094636299 2.2883167 4293388032
-0.88837177 0.092619956 2.303313 4293388032
0.13121019 0.11233152 2.2942607 4293388032
0.17290369 0.10711342 2.2982879 4293388032
0.19774511 0.090525195 2.2880688 4293388032
0.21228087 0.094830915 2.3002234 4293388032
0.25165555 0.10154644 2.2840333 4293388032
-0.94447649 0.12941958 2.2997673 4293388032
-0.81167746 0.14878261 2.2999728 4294967295
0.10115841 0.13881841 2.303328 4293388032
0.14779128 0.13493851 2.3037114 4293388032
0.17229559 0.13122799 2.2984312 4293388032
0.18382742 0.13810767 2.2896421 4293388032
0.22138742 0.13256282 2.2838616 4293388032
0.25536472 0.13551158 2.2990842 4293388032
-0.93850619 0.16295566 2.2893026 4293388032
-0.92569917 0.17292662 2.2806933 4293388032
-0.31667614 0.17409514 2.3068016 4293388032
0.099580318 0.16343991 2.3009937 4293388032
0.14298382 0.16124701 2.3065367 4293388032
0.17181794 0.16565047 2.2986596 4293388032
0.18423659 0.15748927 2.2910202 4293388032
0.2377397 0.16120128 2.2880604 4293388032
0.25429943 0.16780634 2.282475 4293388032
0.099240616 0.19149911 2.2983558 4293388032
0.14392248 0.18837461 2.3064303 4293388032
0.17140535 0.19519153 2.3082509 4293388032
0.1819312 0.2006851 2.3043447 4293388032
0.23773114 0.18961279 2.2896755 4293388032
0.25632334 0.19585976 2.2870846 4293388032
-0.033913672 0.31271783 2.3059738 4294901760
-0.022394309 0.31492981 2.3057868 4294901760
0.14516017 0.31483644 2.3068881 4294901760
0.15812451 0.31213912 2.3042986 4294901760
0.24545687 0.31721824 2.3046818 4294967295
-0.021294961 0.33380416 2.2965574 4294901760
0.17757387 0.34785369 2.2910697 4294967295
-0.02063486 0.36749214 2.2805338 4294967295
-0.91589737 0.68423879 2.3023248 4294967295
-0.91866332 0.69438696 2.283201 4294967295
0.33842519 -0.36575943 2.3302619 4291225377
-0.042667214 -0.34388921 2.3152816 4294901760
-0.017237199 -0.34731776 2.3233171 4294901760
0.010328331 -0.34246048 2.3130116 4294901760
0.3368468 -0.34646928 2.33482 4291225377
-0.042912789 -0.31277072 2.3102736 4294901760
-0.014897238 -0.31935501 2.3190286 4294901760
0.0074432315 -0.31982097 2.3259382 4294901760
0.1338124 -0.31311283 2.3148618 4294967295
0.33521047 -0.31861433 2.3270335 4291225377
-0.046697009 -0.29375866 2.3335612 4294967295
0.34830743 -0.2843675 2.3279996 4291225377
0.48810756 -0.24964029 2.3345234 4291225377
0.43618196 -0.17955923 2.3143969 4291225377
0.50025147 -0.16320513 2.3335302 4291225377
0.20962888 -0.12556393 2.3382633 4293388032
0.36643723 -0.12333112 2.3101931 4291225377
0.36181504 -0.090553276 2.3385394 4291225377
0.44301364 -0.097248591 2.3345158 4291225377
0.20319201 -0.064927086 2.3175511 4293388032
0.22309703 -0.083790943 2.3379385 4293388032
0.3623383 -0.068865933 2.3229165 4291225377
0.43808305 -0.074189201 2.3215673 4291225377
-1.1126231 -0.03504888 2.314456 4294967295
0.16718142 -0.032278746 2.3214655 4293388032
0.19428454 -0.044352904 2.316715 4293388032
0.21814828 -0.033590868 2.3212464 4293388032
0.36110872 -0.051407732 2.3274202 4291225377
0.41008195 -0.043332983 2.3195119 4291225377
0.42879403 -0.0451499 2.3182936 4291225377
0.13595262 -0.015665421 2.3247085 4293388032
0.16531061 -0.016134674 2.3275094 4293388032
0.19641024 -0.016155066 2.3193464 4293388032
0.21268046 -0.018550407 2.3202636 4293388032
0.25175205 -0.0052555078 2.3164172 4293388032
0.38501203 -0.004811672 2.3152089 4291225377
0.40789756 -0.016680196 2.3153059 4291225377
0.42447847 -0.017575171 2.3164265 4291225377
0.07174933 0.018546533 2.3129482 4293388032
0.096050918 0.026446018 2.3134577 4293388032
0.14422372 0.011193001 2.3157194 4293388032
0.16442376 0.019644959 2.3254776 4293388032
0.20392737 0.012080974 2.3275077 4293388032
0.21457997 0.0062636891 2.3190958 4293388032
0.25689504 0.01423379 2.3215954 4293388032
0.40426451 0.0019161835 2.3180006 4291225377
0.42189726 0.0026399838 2.3138118 4291225377
-0.90451419 0.055522654 2.3141294 4293388032
0.11625651 0.037181765 2.3279214 4293388032
0.1477121 0.038024213 2.3169057 4293388032
0.15818672 0.036734976 2.318924 4293388032
0.1999409 0.047403555 2.3248894 4293388032
0.21531132 0.043083683 2.3178518 4293388032
0.25635818 0.040680915 2.3220417 4293388032
-0.93355751 0.079239473 2.3147607 4293388032
-0.91595858 0.076397963 2.323813 4293388032
-0.88856983 0.07957875 2.3292408 4293388032
0.14630325 0.082200557 2.3339512 4293388032
0.15896231 0.070127994 2.3152506 4293388032
0.20102768 0.073919088 2.3227022 4293388032
0.21170303 0.078152426 2.3193445 4293388032
0.24533311 0.072964564 2.3278112 4293388032
-0.92019266 0.10128671 2.3274889 4293388032
-0.88407576 0.10588965 2.3126378 4293388032
0.11186206 0.10629053 2.3277469 4293388032
0.13631558 0.095530108 2.3333609 4293388032
0.16948767 0.1078987 2.319499 4293388032
0.20498303 0.097241603 2.3226545 4293388032
0.2118389 0.10536899 2.314291 4293388032
0.24610531 0.10747434 2.3208294 4293388032
-0.94542158 0.13733487 2.3168507 4293388032
-0.81833738 0.14986566 2.3314471 4294901760
-0.80431563 0.14625601 2.3356884 4294901760
0.11047471 0.13357502 2.3348107 4293388032
0.14829992 0.12697965 2.314122 4293388032
0.16492543 0.13263759 2.3159096 4293388032
0.20340864 0.12290132 2.3243513 4293388032
-0.81696868 0.1722423 2.3267958 4294901760
-0.53306711 0.17804258 2.3392961 4294901760
-0.50355542 0.17488487 2.3362052 4294901760
-0.31862769 0.16975631 2.3260429 4293388032
0.0081787324 0.17912428 2.3384352 4293388032
0.088451892 0.17570357 2.3368011 4293388032
0.10079964 0.17764491 2.328393 4293388032
0.14660566 0.17197566 2.3224592 4293388032
0.1625801 0.16676728 2.3147662 4293388032
0.18331945 0.1751723 2.3132246 4293388032
-0.75804913 0.1911179 2.3366804 4294967295
-0.55494159 0.19582227 2.3261817 4294967295
-0.5051409 0.18425131 2.3382552 4294901760
-0.28846297 0.20242655 2.3384638 4293388032
-0.21957169 0.19665027 2.3380301 4293388032
-0.19426157 0.19673447 2.3382664 4293388032
-0.1647222 0.20305349 2.3372722 4293388032
-0.12925526 0.19652806 2.3360639 4293388032
-0.10284767 0.19718564 2.3365672 4293388032
-0.077633366 0.19616088 2.3328776 4293388032
-0.032136843 0.19266148 2.3321817 4293388032
-0.017236516 0.20049606 2.3302763 4293388032
0.010045102 0.1869337 2.3344941 4293388032
0.04019269 0.19261278 2.321228 4293388032
0.079232417 0.19363314 2.3232679 4293388032
0.1013729 0.19209605 2.3303864 4293388032
0.1409325 0.19522071 2.325686 4293388032
0.1648252 0.19451517 2.3194027 4293388032
0.18450989 0.19759057 2.3191979 4293388032
-0.87628549 0.31730551 2.3355677 4294901760
-0.78715748 0.30960295 2.3257935 4294967295
-0.7697261 0.30466428 2.3246105 4294967295
-0.58972859 0.30454046 2.3352048 4294967295
-0.10142647 0.31455535 2.3365014 4294901760
-0.086127132 0.32237425 2.3384955 4294901760
0.13520961 0.31946367 2.328409 4294967295
0.18122238 0.32293496 2.3156114 4294901760
0.24631281 0.32443306 2.3104413 4294967295
-0.79224676 0.33003286 2.3393075 4294901760
-0.11032933 0.33480272 2.3384621 4294901760
-0.083562702 0.33158576 2.3381538 4294901760
-0.032613929 0.35505441 2.3382053 4294901760
0.13699588 0.33581775 2.3321157 4294967295
-0.038144145 0.36657637 2.3392682 4294967295
0.34240651 -0.4857434 2.3688557 4291225377
0.3731415 -0.48589966 2.3661635 4291225377
0.41063261 -0.48509192 2.367557 4291225377
0.35422608 -0.4581202 2.3680706 4291225377
0.37105474 -0.47424379 2.3686967 4291225377
0.39891547 -0.46905974 2.3683085 4291225377
0.43409604 -0.46815777 2.3684237 4291225377
0.38183516 -0.4267413 2.3665257 4291225377
0.40124089 -0.43260974 2.3654237 4291225377
0.43096548 -0.4413664 2.3664188 4291225377
0.45731878 -0.43702754 2.3661933 4291225377
0.33421421 -0.40917534 2.3572714 4291225377
0.36995173 -0.39656267 2.3606172 4291225377
0.4037123 -0.40404117 2.3646262 4291225377
0.43360087 -0.40691444 2.3640971 4291225377
0.45748121 -0.40870929 2.3669763 4291225377
0.33340475 -0.36673155 2.3557606 4291225377
0.37501189 -0.37238115 2.366044 4291225377
0.39865699 -0.36683252 2.3656938 4291225377
0.43682313 -0.37220743 2.3668053 4291225377
0.45770535 -0.37404537 2.3635478 4291225377
0.3322334 -0.35001746 2.3518217 4291225377
0.3789525 -0.34906575 2.3641131 4291225377
0.40156078 -0.34386963 2.3642282 4291225377
0.43453348 -0.34268647 2.3598738 4291225377
0.45744464 -0.34111995 2.3588438 4291225377
0.37496221 -0.3138268 2.3661659 4291225377
0.39969555 -0.31700519 2.3650482 4291225377
0.43513599 -0.31576765 2.3599768 4291225377
0.45896903 -0.31249303 2.3600719 4291225377
0.20337476 -0.29279339 2.3697975 4293388032
0.3738524 -0.28505111 2.3673165 4291225377
0.40182516 -0.28582609 2.362375 4291225377
0.42571545 -0.27763975 2.3574481 4291225377
0.45769507 -0.28259844 2.3529894 4291225377
0.37369341 -0.25598019 2.3624742 4291225377
0.40047926 -0.25474605 2.3634214 4291225377
0.42878491 -0.25336903 2.3577332 4291225377
0.46036273 -0.25650948 2.3515246 4291225377
0.50019956 -0.24412271 2.3480344 4291225377
0.37401289 -0.22340766 2.3587928 4291225377
0.40053305 -0.22391868 2.3587365 4291225377
0.43197504 -0.22199094 2.365592 4291225377
0.45849392 -0.22479236 2.3503962 4291225377
0.50379205 -0.22704928 2.3542745 4291225377
0.37500119 -0.19416042 2.3582423 4291225377
0.40083 -0.19447668 2.3574727 4291225377
0.43289664 -0.18742554 2.3655069 4291225377
0.45881122 -0.19577727 2.3507347 4291225377
0.50020003 -0.19816142 2.3518045 4291225377
0.23766534 -0.16907346 2.3621488 4293388032
0.37358066 -0.16467358 2.356879 4291225377
0.40105233 -0.1639189 2.3540726 4291225377
0.4340221 -0.16783005 2.3649197 4291225377
0.46106163 -0.16893972 2.3505313 4291225377
0.49779916 -0.16571517 2.3518784 4291225377
-1.1145453 -0.1291752 2.3472049 4294967295
0.21959579 -0.1361728 2.3563974 4293388032
0.37317026 -0.1360389 2.3555903 4291225377
0.39632365 -0.14283964 2.3549736 4291225377
0.43013516 -0.12707527 2.3650084 4291225377
0.464053 -0.13571072 2.3508935 4291225377
0.49970621 -0.14050041 2.3569491 4291225377
0.20207612 -0.10190057 2.3690209 4293388032
